ply
format ascii 1.0
comment PCL generated
obj_info is_cyberware_data 0
obj_info is_mesh 0
obj_info is_warped 0
obj_info is_interlaced 0
obj_info num_cols 25457
obj_info num_rows 1
obj_info echo_rgb_offset_x 0
obj_info echo_rgb_offset_y 0
obj_info echo_rgb_offset_z 0
obj_info echo_rgb_frontfocus 0.0
obj_info echo_rgb_backfocus 0.0
obj_info echo_rgb_pixelsize 0.0
obj_info echo_rgb_centerpixel 0
obj_info echo_frames 1
obj_info echo_lgincr 0.0
element vertex 2375
property float x
property float y
property float z
end_header
72.2773 89.0929 739
73.7671 89.334 741
75.0612 89.334 741
76.3554 89.334 741
77.8591 89.5752 743
79.1568 89.5752 743
80.4544 89.5752 743
81.7521 89.5752 743
83.0497 89.5752 743
84.3474 89.5752 743
85.645 89.5752 743
87.1767 89.8163 745
88.4779 89.8163 745
89.779 89.8163 745
91.3247 90.0574 747
92.6293 90.0574 747
94.3112 90.4191 750
95.6211 90.4191 750
96.9309 90.4191 750
98.5028 90.6602 752
100.082 90.9013 754
101.398 90.9013 754
102.988 91.1424 756
104.308 91.1424 756
106.048 91.5041 759
107.373 91.5041 759
108.985 91.7452 761
111.039 92.348 766
112.377 92.348 766
114.012 92.5891 768
116.104 93.1919 773
117.454 93.1919 773
118.804 93.1919 773
-17.617 112.155 917
-15.963 111.788 914
-14.4139 112.155 917
-12.7704 111.788 914
-11.1252 111.298 910
-6.35727 111.298 910
-4.75224 110.932 907
-3.16816 110.932 907
-1.58408 110.932 907
9.47478 94.7871 775
10.8004 94.5425 773
12.1033 94.1756 770
13.4131 93.931 768
14.7545 93.931 768
16.0539 93.6864 766
17.3917 93.6864 766
18.6561 93.3195 763
19.9363 93.0749 761
21.2095 92.8302 759
22.5351 92.8302 759
23.8607 92.8302 759
25.0868 92.4633 756
26.4071 92.4633 756
27.6541 92.2187 754
28.971 92.2187 754
30.2075 91.9741 752
31.4371 91.7295 750
32.7469 91.7295 750
33.9206 91.3626 747
35.2252 91.3626 747
36.4321 91.118 745
37.7332 91.118 745
38.9296 90.8733 743
40.1189 90.6287 741
41.4131 90.6287 741
42.592 90.3841 739
43.8826 90.3841 739
45.1733 90.3841 739
46.2754 90.0172 736
47.5608 90.0172 736
48.7135 89.7726 734
49.9954 89.7726 734
51.1376 89.528 732
52.4161 89.528 732
53.6945 89.528 732
54.9729 89.528 732
56.2514 89.528 732
57.5298 89.528 732
58.8083 89.528 732
60.0867 89.528 732
61.3651 89.528 732
62.6436 89.528 732
64.0967 89.7726 734
65.3786 89.7726 734
66.6605 89.7726 734
68.1276 90.0172 736
69.696 90.3841 739
70.9866 90.3841 739
72.2773 90.3841 739
73.7671 90.6287 741
75.0612 90.6287 741
76.3554 90.6287 741
77.8591 90.8733 743
79.1568 90.8733 743
80.4544 90.8733 743
81.7521 90.8733 743
83.0497 90.8733 743
84.3474 90.8733 743
85.645 90.8733 743
87.1767 91.118 745
88.4779 91.118 745
90.02 91.3626 747
91.3247 91.3626 747
92.6293 91.3626 747
94.3112 91.7295 750
95.6211 91.7295 750
96.9309 91.7295 750
98.5028 91.9741 752
100.082 92.2187 754
101.398 92.2187 754
102.988 92.4633 756
104.308 92.4633 756
106.048 92.8302 759
107.373 92.8302 759
109.272 93.3195 763
111.039 93.6864 766
112.67 93.931 768
114.309 94.1756 770
116.104 94.5425 773
117.758 94.7871 775
-17.5593 113.385 914
-15.8932 112.888 910
-14.3667 113.385 914
-12.7145 112.888 910
-11.0886 112.516 907
-6.33631 112.516 907
-4.75224 112.516 907
-3.15768 112.144 904
-1.57884 112.144 904
0 111.648 900
9.47478 96.1412 775
10.8004 95.8931 773
12.1504 95.8931 773
13.4481 95.521 770
14.7545 95.2729 768
16.0539 95.0248 766
17.3917 95.0248 766
18.6561 94.6526 763
19.9363 94.4045 761
21.2095 94.1564 759
22.5351 94.1564 759
23.8607 94.1564 759
25.0868 93.7842 756
26.4071 93.7842 756
27.6541 93.5361 754
28.971 93.5361 754
30.2075 93.288 752
31.5209 93.288 752
32.7469 93.0399 750
34.0568 93.0399 750
35.2252 92.6677 747
36.4321 92.4196 745
37.7332 92.4196 745
38.9296 92.1715 743
40.2272 92.1715 743
41.4131 91.9234 741
42.7072 91.9234 741
43.8826 91.6753 739
45.1733 91.6753 739
46.2754 91.3032 736
47.5608 91.3032 736
48.7135 91.0551 734
49.9954 91.0551 734
51.1376 90.807 732
52.4161 90.807 732
53.6945 90.807 732
54.9729 90.807 732
56.2514 90.807 732
57.5298 90.807 732
58.8083 90.807 732
60.0867 90.807 732
61.3651 90.807 732
62.6436 90.807 732
64.0967 91.0551 734
65.3786 91.0551 734
66.8422 91.3032 736
68.1276 91.3032 736
69.696 91.6753 739
70.9866 91.6753 739
72.2773 91.6753 739
73.7671 91.9234 741
75.0612 91.9234 741
76.3554 91.9234 741
77.6495 91.9234 741
79.1568 92.1715 743
80.4544 92.1715 743
81.7521 92.1715 743
83.0497 92.1715 743
84.3474 92.1715 743
85.645 92.1715 743
87.1767 92.4196 745
88.4779 92.4196 745
90.02 92.6677 747
91.3247 92.6677 747
92.6293 92.6677 747
94.3112 93.0399 750
95.6211 93.0399 750
96.9309 93.0399 750
98.5028 93.288 752
100.082 93.5361 754
101.398 93.5361 754
102.988 93.7842 756
104.308 93.7842 756
106.048 94.1564 759
107.656 94.4045 761
109.272 94.6526 763
111.039 95.0248 766
112.67 95.2729 768
114.309 95.521 770
116.104 95.8931 773
117.758 96.1412 775
-24.0232 115.359 917
-19.1556 114.982 914
-17.4825 114.478 910
-15.8932 114.478 910
-14.3039 114.478 910
-12.7145 114.478 910
-11.0886 114.101 907
-9.50447 114.101 907
-7.92039 114.101 907
-6.33631 114.101 907
-4.73652 113.724 904
-3.15768 113.724 904
-1.57185 113.22 900
0 113.22 900
1.57185 113.22 900
9.47478 97.4953 775
10.8004 97.2437 773
12.1504 97.2437 773
13.4481 96.8663 770
14.7545 96.6147 768
16.0958 96.6147 768
17.3917 96.3631 766
18.6561 95.9857 763
19.9363 95.7341 761
21.2095 95.4825 759
22.5351 95.4825 759
23.8607 95.4825 759
25.0868 95.1051 756
26.4071 95.1051 756
27.7275 95.1051 756
28.971 94.8535 754
30.2075 94.6019 752
31.5209 94.6019 752
32.7469 94.3503 750
34.0568 94.3503 750
35.2252 93.9729 747
36.5299 93.9729 747
37.7332 93.7213 745
38.9296 93.4697 743
40.2272 93.4697 743
41.4131 93.2181 741
42.7072 93.2181 741
44.0014 93.2181 741
45.1733 92.9665 739
46.2754 92.5891 736
47.5608 92.5891 736
48.8462 92.5891 736
49.9954 92.3375 734
51.1376 92.0859 732
52.4161 92.0859 732
53.6945 92.0859 732
54.9729 92.0859 732
56.2514 92.0859 732
57.5298 92.0859 732
58.8083 92.0859 732
60.0867 92.0859 732
61.3651 92.0859 732
62.6436 92.0859 732
64.0967 92.3375 734
65.3786 92.3375 734
66.8422 92.5891 736
68.1276 92.5891 736
69.696 92.9665 739
70.9866 92.9665 739
72.2773 92.9665 739
73.568 92.9665 739
75.0612 93.2181 741
76.3554 93.2181 741
77.6495 93.2181 741
79.1568 93.4697 743
80.4544 93.4697 743
81.7521 93.4697 743
83.0497 93.4697 743
84.3474 93.4697 743
85.8756 93.7213 745
87.1767 93.7213 745
88.4779 93.7213 745
90.02 93.9729 747
91.3247 93.9729 747
92.6293 93.9729 747
94.3112 94.3503 750
95.6211 94.3503 750
96.9309 94.3503 750
98.5028 94.6019 752
100.082 94.8535 754
101.398 94.8535 754
102.988 95.1051 756
104.722 95.4825 759
106.048 95.4825 759
107.656 95.7341 761
109.272 95.9857 763
111.039 96.3631 766
112.67 96.6147 768
114.309 96.8663 770
116.104 97.2437 773
117.758 97.4953 775
-23.9446 116.579 914
-22.3483 116.579 914
-20.752 116.579 914
-19.0718 116.068 910
-17.4825 116.068 910
-15.8408 115.686 907
-14.2567 115.686 907
-12.6726 115.686 907
-11.0886 115.686 907
-9.47303 115.303 904
-7.8942 115.303 904
-6.31536 115.303 904
-4.73652 115.303 904
-3.14371 114.793 900
-1.57185 114.793 900
0 114.793 900
1.56661 114.41 897
9.47478 98.8494 775
10.8004 98.5943 773
12.1504 98.5943 773
13.4481 98.2117 770
14.7929 98.2117 770
16.0958 97.9566 768
17.3917 97.7015 766
18.6561 97.3189 763
19.9887 97.3189 763
21.2654 97.0638 761
22.5351 96.8087 759
23.8607 96.8087 759
25.0868 96.426 756
26.4071 96.426 756
27.7275 96.426 756
28.971 96.1709 754
30.2075 95.9158 752
31.5209 95.9158 752
32.7469 95.6608 750
34.0568 95.6608 750
35.2252 95.2781 747
36.5299 95.2781 747
37.7332 95.023 745
39.0344 95.023 745
40.2272 94.7679 743
41.5249 94.7679 743
42.7072 94.5128 741
44.0014 94.5128 741
45.1733 94.2577 739
46.464 94.2577 739
47.5608 93.8751 736
48.8462 93.8751 736
49.9954 93.62 734
51.2773 93.62 734
52.4161 93.3649 732
53.6945 93.3649 732
54.9729 93.3649 732
56.2514 93.3649 732
57.5298 93.3649 732
58.8083 93.3649 732
60.0867 93.3649 732
61.3651 93.3649 732
62.6436 93.3649 732
64.0967 93.62 734
65.3786 93.62 734
66.8422 93.8751 736
68.4053 94.2577 739
69.696 94.2577 739
70.9866 94.2577 739
72.2773 94.2577 739
73.7671 94.5128 741
75.0612 94.5128 741
76.3554 94.5128 741
77.6495 94.5128 741
79.1568 94.7679 743
80.4544 94.7679 743
81.7521 94.7679 743
83.0497 94.7679 743
84.5744 95.023 745
85.8756 95.023 745
87.1767 95.023 745
88.4779 95.023 745
90.02 95.2781 747
91.3247 95.2781 747
92.6293 95.2781 747
94.3112 95.6608 750
95.6211 95.6608 750
96.9309 95.6608 750
98.5028 95.9158 752
100.082 96.1709 754
101.667 96.426 756
102.988 96.426 756
104.722 96.8087 759
106.327 97.0638 761
107.939 97.3189 763
109.272 97.3189 763
111.039 97.7015 766
112.67 97.9566 768
114.012 97.9566 768
-40.6499 120.374 931
-39.0239 120.374 931
-37.2372 119.856 927
-35.6182 119.856 927
-25.5409 118.176 914
-23.9446 118.176 914
-22.2505 117.658 910
-20.6611 117.658 910
-19.0718 117.658 910
-17.4249 117.27 907
-15.8408 117.27 907
-14.2567 117.27 907
-12.6307 116.883 904
-11.0519 116.883 904
-9.47303 116.883 904
-7.8942 116.883 904
-6.28741 116.365 900
-4.71556 116.365 900
-3.13323 115.978 897
-1.56661 115.978 897
0 115.978 897
1.56661 115.978 897
3.12275 115.59 894
4.68412 115.59 894
6.22454 115.202 891
7.75448 114.814 888
13.4481 99.5571 770
14.7929 99.5571 770
16.0958 99.2985 768
17.3917 99.0399 766
18.7295 99.0399 766
19.9887 98.652 763
21.2654 98.3934 761
22.5945 98.3934 761
23.8607 98.1348 759
25.1863 98.1348 759
26.4071 97.7469 756
27.7275 97.7469 756
28.971 97.4883 754
30.2075 97.2298 752
31.5209 97.2298 752
32.7469 96.9712 750
34.0568 96.9712 750
35.2252 96.5833 747
36.5299 96.5833 747
37.7332 96.3247 745
39.0344 96.3247 745
40.2272 96.0661 743
41.5249 96.0661 743
42.7072 95.8075 741
44.0014 95.8075 741
45.1733 95.5489 739
46.464 95.5489 739
47.7546 95.5489 739
48.8462 95.161 736
50.1316 95.161 736
51.2773 94.9025 734
52.5593 94.9025 734
53.8412 94.9025 734
54.9729 94.6439 732
56.2514 94.6439 732
57.5298 94.6439 732
58.9689 94.9025 734
60.2509 94.9025 734
61.5328 94.9025 734
62.8147 94.9025 734
64.0967 94.9025 734
65.5568 95.161 736
66.8422 95.161 736
68.4053 95.5489 739
69.696 95.5489 739
70.9866 95.5489 739
72.2773 95.5489 739
73.7671 95.8075 741
75.0612 95.8075 741
76.3554 95.8075 741
77.6495 95.8075 741
79.1568 96.0661 743
80.4544 96.0661 743
81.7521 96.0661 743
83.2733 96.3247 745
84.5744 96.3247 745
85.8756 96.3247 745
87.1767 96.3247 745
88.4779 96.3247 745
90.02 96.5833 747
91.3247 96.5833 747
92.6293 96.5833 747
94.3112 96.9712 750
95.6211 96.9712 750
97.1894 97.2298 752
98.7648 97.4883 754
100.082 97.4883 754
101.667 97.7469 756
103.396 98.1348 759
104.722 98.1348 759
106.327 98.3934 761
107.939 98.652 763
109.272 98.652 763
111.039 99.0399 766
112.67 99.2985 768
114.012 99.2985 768
-40.4752 121.476 927
-38.8562 121.476 927
-37.2372 121.476 927
-35.5029 121.083 924
-33.8892 121.083 924
-25.5409 119.772 914
-23.8398 119.248 910
-22.2505 119.248 910
-20.593 118.855 907
-19.0089 118.855 907
-17.4249 118.855 907
-15.7884 118.462 904
-14.2096 118.462 904
-12.5748 117.938 900
-11.003 117.938 900
-9.43112 117.938 900
-7.85927 117.938 900
-6.28741 117.938 900
-4.69984 117.545 897
-3.13323 117.545 897
-1.56661 117.545 897
0 117.545 897
1.56137 117.152 894
3.12275 117.152 894
4.6684 116.759 891
6.22454 116.759 891
7.75448 116.365 888
16.0958 100.64 768
17.4371 100.64 768
18.7295 100.378 766
20.0673 100.378 766
21.3213 99.9851 763
22.5945 99.7231 761
23.8607 99.461 759
25.1863 99.461 759
26.4071 99.0678 756
27.7275 99.0678 756
28.971 98.8058 754
30.2075 98.5437 752
31.5209 98.5437 752
32.7469 98.2816 750
34.0568 98.2816 750
35.2252 97.8885 747
36.5299 97.8885 747
37.7332 97.6264 745
39.0344 97.6264 745
40.2272 97.3643 743
41.5249 97.3643 743
42.7072 97.1022 741
44.0014 97.1022 741
45.2956 97.1022 741
46.464 96.8401 739
47.7546 96.8401 739
49.0453 96.8401 739
50.1316 96.447 736
51.4171 96.447 736
52.5593 96.1849 734
53.8412 96.1849 734
55.1231 96.1849 734
56.4051 96.1849 734
57.687 96.1849 734
58.9689 96.1849 734
60.2509 96.1849 734
61.5328 96.1849 734
62.8147 96.1849 734
64.2713 96.447 736
65.5568 96.447 736
67.1146 96.8401 739
68.4053 96.8401 739
69.696 96.8401 739
70.9866 96.8401 739
72.2773 96.8401 739
73.7671 97.1022 741
75.0612 97.1022 741
76.3554 97.1022 741
77.6495 97.1022 741
79.1568 97.3643 743
80.4544 97.3643 743
81.7521 97.3643 743
83.2733 97.6264 745
84.5744 97.6264 745
85.8756 97.6264 745
87.1767 97.6264 745
88.4779 97.6264 745
90.02 97.8885 747
91.3247 97.8885 747
92.6293 97.8885 747
94.3112 98.2816 750
95.6211 98.2816 750
97.1894 98.5437 752
98.7648 98.8058 754
100.347 99.0678 756
102.071 99.461 759
103.396 99.461 759
104.998 99.7231 761
106.607 99.9851 763
107.939 99.9851 763
109.272 99.9851 763
111.039 100.378 766
112.377 100.378 766
-41.958 122.697 924
-40.3442 122.697 924
-38.7305 122.697 924
-36.956 122.166 920
-35.234 121.768 917
-33.6324 121.768 917
-31.9261 121.369 914
-30.197 120.838 910
-28.6077 120.838 910
-27.0184 120.838 910
-25.4291 120.838 910
-23.8398 120.838 910
-22.1771 120.44 907
-20.5249 120.042 904
-18.9461 120.042 904
-17.3672 120.042 904
-15.7185 119.51 900
-14.1467 119.51 900
-12.5748 119.51 900
-11.003 119.51 900
-9.39968 119.112 897
-7.83307 119.112 897
-6.26645 119.112 897
-4.69984 119.112 897
-3.12275 118.714 894
-1.56137 118.714 894
0 118.315 891
1.55613 118.315 891
3.11227 118.315 891
4.65269 117.917 888
6.20358 117.917 888
7.72828 117.519 885
16.0958 101.982 768
17.4371 101.982 768
18.7784 101.982 768
20.0673 101.717 766
21.3213 101.318 763
22.6539 101.318 763
23.9236 101.053 761
25.1863 100.787 759
26.5119 100.787 759
27.7275 100.389 756
29.0478 100.389 756
30.2879 100.123 754
31.5209 99.8576 752
32.7469 99.592 750
34.0568 99.592 750
35.2252 99.1936 747
36.5299 99.1936 747
37.7332 98.9281 745
39.0344 98.9281 745
40.2272 98.6625 743
41.5249 98.6625 743
42.8225 98.6625 743
44.0014 98.3969 741
45.2956 98.3969 741
46.5897 98.3969 741
47.7546 98.1313 739
49.0453 98.1313 739
50.1316 97.733 736
51.4171 97.733 736
52.7025 97.733 736
53.8412 97.4674 734
55.1231 97.4674 734
56.4051 97.4674 734
57.687 97.4674 734
58.9689 97.4674 734
60.2509 97.4674 734
61.7005 97.733 736
62.9859 97.733 736
64.2713 97.733 736
65.5568 97.733 736
67.1146 98.1313 739
68.4053 98.1313 739
69.696 98.1313 739
70.9866 98.1313 739
72.2773 98.1313 739
73.7671 98.3969 741
75.0612 98.3969 741
76.5615 98.6625 743
77.8591 98.6625 743
79.1568 98.6625 743
80.4544 98.6625 743
81.9721 98.9281 745
83.2733 98.9281 745
84.5744 98.9281 745
85.8756 98.9281 745
87.4108 99.1936 747
88.7154 99.1936 747
90.02 99.1936 747
91.3247 99.1936 747
93.0013 99.592 750
94.3112 99.592 750
95.8761 99.8576 752
97.1894 99.8576 752
99.0267 100.389 756
100.347 100.389 756
102.071 100.787 759
103.396 100.787 759
104.998 101.053 761
106.607 101.318 763
107.939 101.318 763
109.272 101.318 763
111.039 101.717 766
112.377 101.717 766
-41.958 124.312 924
-40.1696 123.774 920
-38.5628 123.774 920
-36.8355 123.37 917
-35.1187 122.966 914
-33.5224 122.966 914
-31.9261 122.966 914
-30.197 122.428 910
-28.6077 122.428 910
-26.9293 122.025 907
-25.3453 122.025 907
-23.6826 121.621 904
-22.1037 121.621 904
-20.4341 121.083 900
-18.8622 121.083 900
-17.2904 121.083 900
-15.7185 121.083 900
-14.1467 121.083 900
-12.5329 120.679 897
-11.003 121.083 900
-9.39968 120.679 897
-7.83307 120.679 897
-6.26645 120.679 897
-4.68412 120.276 894
-3.12275 120.276 894
-1.55613 119.872 891
0 119.872 891
1.55613 119.872 891
3.10179 119.468 888
4.65269 119.468 888
6.20358 119.468 888
7.72828 119.065 885
17.4371 103.324 768
18.7295 103.055 766
20.0673 103.055 766
21.3213 102.651 763
22.6539 102.651 763
23.9236 102.382 761
25.1863 102.113 759
26.5119 102.113 759
27.7275 101.71 756
29.0478 101.71 756
30.2879 101.441 754
31.5209 101.172 752
32.7469 100.902 750
34.0568 100.902 750
35.2252 100.499 747
36.5299 100.499 747
37.7332 100.23 745
39.0344 100.23 745
40.2272 99.9607 743
41.5249 99.9607 743
42.8225 99.9607 743
44.0014 99.6916 741
45.2956 99.6916 741
46.5897 99.6916 741
47.7546 99.4225 739
49.0453 99.4225 739
50.1316 99.0189 736
51.4171 99.0189 736
52.7025 99.0189 736
53.8412 98.7498 734
55.1231 98.7498 734
56.4051 98.7498 734
57.687 98.7498 734
58.9689 98.7498 734
60.415 99.0189 736
61.7005 99.0189 736
62.9859 99.0189 736
64.2713 99.0189 736
65.824 99.4225 739
67.1146 99.4225 739
68.4053 99.4225 739
69.696 99.4225 739
71.1787 99.6916 741
72.4729 99.6916 741
73.7671 99.6916 741
75.2638 99.9607 743
76.5615 99.9607 743
77.8591 99.9607 743
79.3699 100.23 745
80.671 100.23 745
81.9721 100.23 745
83.2733 100.23 745
84.8015 100.499 747
86.1061 100.499 747
87.4108 100.499 747
88.7154 100.499 747
90.02 100.499 747
91.6914 100.902 750
93.0013 100.902 750
94.3112 100.902 750
95.8761 101.172 752
97.4479 101.441 754
99.0267 101.71 756
100.745 102.113 759
102.071 102.113 759
103.669 102.382 761
105.274 102.651 763
106.607 102.651 763
107.939 102.651 763
109.272 102.651 763
111.039 103.055 766
138.271 122.428 910
139.86 122.428 910
141.449 122.428 910
-41.6401 124.972 917
-40.0386 124.972 917
-38.3113 124.563 914
-36.715 124.563 914
-35.1187 124.563 914
-33.3757 124.018 910
-31.7864 124.018 910
-30.0975 123.609 907
-28.5134 123.609 907
-26.8403 123.201 904
-25.2614 123.201 904
-23.5778 122.655 900
-22.0059 122.655 900
-20.4341 122.655 900
-18.8622 122.655 900
-17.2904 122.655 900
-15.6661 122.247 897
-14.0995 122.247 897
-12.5329 122.247 897
-10.9663 122.247 897
-9.36824 121.838 894
-7.80687 121.838 894
-6.2455 121.838 894
-4.6684 121.429 891
-3.11227 121.429 891
-1.5509 121.02 888
0 121.02 888
1.5509 121.02 888
3.10179 121.02 888
4.63697 120.611 885
6.18262 120.611 885
7.69335 120.066 881
18.7784 104.666 768
20.0673 104.393 766
21.3213 103.985 763
22.6539 103.985 763
23.9236 103.712 761
25.1863 103.439 759
26.5119 103.439 759
27.7275 103.031 756
29.0478 103.031 756
30.2879 102.758 754
31.5209 102.485 752
32.7469 102.213 750
34.0568 102.213 750
35.2252 101.804 747
36.5299 101.804 747
37.7332 101.531 745
38.9296 101.259 743
40.2272 101.259 743
41.5249 101.259 743
42.8225 101.259 743
44.0014 100.986 741
45.2956 100.986 741
46.464 100.714 739
47.7546 100.714 739
49.0453 100.714 739
50.1316 100.305 736
51.4171 100.305 736
52.7025 100.305 736
53.9879 100.305 736
55.2733 100.305 736
56.5588 100.305 736
57.8442 100.305 736
59.1296 100.305 736
60.415 100.305 736
61.7005 100.305 736
62.9859 100.305 736
64.2713 100.305 736
65.824 100.714 739
67.1146 100.714 739
68.4053 100.714 739
69.696 100.714 739
71.1787 100.986 741
72.4729 100.986 741
73.7671 100.986 741
75.2638 101.259 743
76.5615 101.259 743
77.8591 101.259 743
79.3699 101.531 745
80.671 101.531 745
81.9721 101.531 745
83.4968 101.804 747
84.8015 101.804 747
86.1061 101.804 747
87.7618 102.213 750
89.0717 102.213 750
90.3816 102.213 750
91.6914 102.213 750
93.0013 102.213 750
94.5627 102.485 752
96.131 102.758 754
97.7064 103.031 756
99.0267 103.031 756
100.745 103.439 759
102.34 103.712 761
103.669 103.712 761
105.274 103.985 763
106.607 103.985 763
108.364 104.393 766
109.272 103.985 763
139.86 124.018 910
141.449 124.018 910
143.039 124.018 910
-65.4485 126.16 914
-52.678 126.16 914
-41.3223 125.608 910
-39.733 125.608 910
-38.1436 125.608 910
-36.4338 125.194 907
-34.8497 125.194 907
-33.2657 125.194 907
-31.6816 125.194 907
-29.9979 124.78 904
-28.4191 124.78 904
-26.7215 124.228 900
-25.1497 124.228 900
-23.4992 123.814 897
-21.9326 123.814 897
-20.366 123.814 897
-18.7994 123.814 897
-17.2327 123.814 897
-15.6661 123.814 897
-14.0524 123.4 894
-12.491 123.4 894
-10.8929 122.986 891
-9.33681 122.986 891
-7.78067 122.986 891
-6.22454 122.986 891
-4.65269 122.572 888
-3.10179 122.572 888
-1.5509 122.572 888
0 122.157 885
1.54566 122.157 885
3.09131 122.157 885
4.63697 122.157 885
6.15468 121.605 881
7.69335 121.605 881
18.7784 106.008 768
20.0673 105.732 766
21.3213 105.318 763
22.6539 105.318 763
23.9236 105.042 761
25.1863 104.766 759
26.5119 104.766 759
27.7275 104.351 756
29.0478 104.351 756
30.2879 104.075 754
31.5209 103.799 752
32.7469 103.523 750
33.9206 103.109 747
35.2252 103.109 747
36.4321 102.833 745
37.7332 102.833 745
38.9296 102.557 743
40.2272 102.557 743
41.4131 102.281 741
42.7072 102.281 741
44.0014 102.281 741
45.2956 102.281 741
46.464 102.005 739
47.7546 102.005 739
49.0453 102.005 739
50.1316 101.591 736
51.4171 101.591 736
52.7025 101.591 736
53.9879 101.591 736
55.2733 101.591 736
56.5588 101.591 736
57.8442 101.591 736
59.1296 101.591 736
60.415 101.591 736
61.7005 101.591 736
62.9859 101.591 736
64.2713 101.591 736
65.824 102.005 739
67.1146 102.005 739
68.4053 102.005 739
69.696 102.005 739
71.1787 102.281 741
72.4729 102.281 741
73.7671 102.281 741
75.2638 102.557 743
76.5615 102.557 743
77.8591 102.557 743
79.3699 102.833 745
80.671 102.833 745
82.1922 103.109 747
83.4968 103.109 747
84.8015 103.109 747
86.1061 103.109 747
87.7618 103.523 750
89.0717 103.523 750
90.3816 103.523 750
91.6914 103.523 750
93.2493 103.799 752
94.8142 104.075 754
96.386 104.351 756
97.7064 104.351 756
99.4197 104.766 759
101.011 105.042 761
102.34 105.042 761
103.941 105.318 763
105.688 105.732 766
107.026 105.732 766
108.364 105.732 766
139.399 125.194 907
141.449 125.608 910
143.039 125.608 910
144.628 125.608 910
-65.4485 127.757 914
-63.8522 127.757 914
-52.4475 127.198 910
-50.8582 127.198 910
-41.0498 126.36 904
-39.471 126.36 904
-37.8921 126.36 904
-36.3133 126.36 904
-34.5808 125.8 900
-33.0089 125.8 900
-31.4371 125.8 900
-29.8652 125.8 900
-28.2934 125.8 900
-26.6324 125.381 897
-25.0658 125.381 897
-23.4992 125.381 897
-21.9326 125.381 897
-20.2979 124.962 894
-18.7365 124.962 894
-17.1751 124.962 894
-15.6137 124.962 894
-14.0052 124.542 891
-12.4491 124.542 891
-10.8929 124.542 891
-9.30537 124.123 888
-7.75448 124.123 888
-6.20358 124.123 888
-4.65269 124.123 888
-3.09131 123.704 885
-1.54566 123.704 885
0 123.704 885
1.54566 123.704 885
3.09131 123.704 885
4.61601 123.145 881
6.13372 122.725 878
7.66715 122.725 878
18.7784 107.35 768
20.0673 107.07 766
21.4051 107.07 766
22.6539 106.651 763
23.9236 106.371 761
25.1863 106.092 759
26.5119 106.092 759
27.7275 105.672 756
29.0478 105.672 756
30.2879 105.393 754
31.5209 105.113 752
32.7469 104.834 750
34.0568 104.834 750
35.2252 104.414 747
36.4321 104.135 745
37.7332 104.135 745
38.9296 103.855 743
40.2272 103.855 743
41.4131 103.576 741
42.7072 103.576 741
44.0014 103.576 741
45.2956 103.576 741
46.464 103.296 739
47.7546 103.296 739
49.0453 103.296 739
50.336 103.296 739
51.4171 102.877 736
52.7025 102.877 736
53.9879 102.877 736
55.2733 102.877 736
56.5588 102.877 736
57.8442 102.877 736
59.1296 102.877 736
60.415 102.877 736
61.7005 102.877 736
62.9859 102.877 736
64.5333 103.296 739
65.824 103.296 739
67.1146 103.296 739
68.4053 103.296 739
69.8846 103.576 741
71.1787 103.576 741
72.4729 103.576 741
73.7671 103.576 741
75.2638 103.855 743
76.5615 103.855 743
77.8591 103.855 743
79.3699 104.135 745
80.671 104.135 745
82.1922 104.414 747
83.4968 104.414 747
84.8015 104.414 747
86.1061 104.414 747
87.7618 104.834 750
89.0717 104.834 750
90.3816 104.834 750
91.9359 105.113 752
93.4973 105.393 754
95.0657 105.672 756
96.386 105.672 756
98.0941 106.092 759
99.6817 106.371 761
101.276 106.651 763
102.609 106.651 763
104.35 107.07 766
105.688 107.07 766
107.026 107.07 766
108.364 107.07 766
134.201 126.36 904
135.78 126.36 904
137.815 126.779 907
139.399 126.779 907
141.449 127.198 910
143.039 127.198 910
144.628 127.198 910
146.217 127.198 910
147.807 127.198 910
-65.162 128.788 910
-63.5727 128.788 910
-61.9834 128.788 910
-60.195 128.364 907
-58.6109 128.364 907
-57.0268 128.364 907
-52.2746 128.364 907
-50.5229 127.939 904
-48.944 127.939 904
-47.1556 127.373 900
-42.44 127.373 900
-40.8682 127.373 900
-39.2963 127.373 900
-37.7245 127.373 900
-36.0321 126.948 897
-34.4655 126.948 897
-32.8989 126.948 897
-31.3323 126.948 897
-29.7657 126.948 897
-28.199 126.948 897
-26.5434 126.524 894
-24.982 126.524 894
-23.4206 126.524 894
-21.8592 126.524 894
-20.2297 126.099 891
-18.6736 126.099 891
-17.1175 126.099 891
-15.509 125.675 888
-13.9581 125.675 888
-12.4072 125.675 888
-10.8563 125.675 888
-9.30537 125.675 888
-7.75448 125.675 888
-6.18262 125.25 885
-4.63697 125.25 885
-3.09131 125.25 885
-1.54566 125.25 885
0 125.25 885
1.53867 124.684 881
3.07734 124.684 881
4.60029 124.259 878
6.11276 123.835 875
7.64095 123.835 875
9.0434 122.137 863
14.7754 119.731 846
20.0673 108.409 766
21.4051 108.409 766
22.6539 107.984 763
23.9236 107.701 761
25.1863 107.418 759
26.5119 107.418 759
27.7275 106.993 756
29.0478 106.993 756
30.2879 106.71 754
31.6047 106.71 754
32.7469 106.144 750
34.0568 106.144 750
35.2252 105.72 747
36.5299 105.72 747
37.7332 105.436 745
38.9296 105.153 743
40.2272 105.153 743
41.4131 104.87 741
42.7072 104.87 741
44.0014 104.87 741
45.2956 104.87 741
46.464 104.587 739
47.7546 104.587 739
49.0453 104.587 739
50.336 104.587 739
51.4171 104.163 736
52.7025 104.163 736
53.9879 104.163 736
55.2733 104.163 736
56.5588 104.163 736
57.8442 104.163 736
59.1296 104.163 736
60.415 104.163 736
61.7005 104.163 736
62.9859 104.163 736
64.5333 104.587 739
65.824 104.587 739
67.1146 104.587 739
68.4053 104.587 739
69.8846 104.87 741
71.1787 104.87 741
72.4729 104.87 741
73.9662 105.153 743
75.2638 105.153 743
76.5615 105.153 743
78.0687 105.436 745
79.3699 105.436 745
80.8876 105.72 747
82.1922 105.72 747
83.4968 105.72 747
84.8015 105.72 747
86.4519 106.144 750
87.7618 106.144 750
89.3092 106.427 752
90.6226 106.427 752
92.1805 106.71 754
93.7453 106.993 756
95.0657 106.993 756
96.7685 107.418 759
98.3526 107.701 761
99.6817 107.701 761
101.276 107.984 763
102.609 107.984 763
104.35 108.409 766
105.688 108.409 766
107.026 108.409 766
132.036 127.373 900
133.608 127.373 900
135.179 127.373 900
137.359 127.939 904
138.938 127.939 904
140.983 128.364 907
142.567 128.364 907
144.151 128.364 907
145.735 128.364 907
147.319 128.364 907
149.396 128.788 910
-65.162 130.378 910
-63.5727 130.378 910
-61.7791 129.948 907
-59.9959 129.519 904
-58.417 129.519 904
-56.8382 129.519 904
-55.2594 129.519 904
-53.6805 129.519 904
-51.8712 128.945 900
-50.2993 128.945 900
-48.7274 128.945 900
-46.9984 128.516 897
-45.5837 128.945 900
-43.8652 128.516 897
-42.2986 128.516 897
-40.732 128.516 897
-39.1653 128.516 897
-37.5987 128.516 897
-36.0321 128.516 897
-34.4655 128.516 897
-32.7889 128.086 894
-31.2275 128.086 894
-29.6661 128.086 894
-28.0104 127.656 891
-26.4543 127.656 891
-24.8982 127.656 891
-23.342 127.656 891
-21.7859 127.656 891
-20.1616 127.226 888
-18.6107 127.226 888
-17.0598 127.226 888
-15.509 127.226 888
-13.9581 127.226 888
-12.4072 127.226 888
-10.8196 126.796 885
-9.27393 126.796 885
-7.72828 126.796 885
-6.18262 126.796 885
-4.63697 126.796 885
-3.09131 126.796 885
-1.54566 126.796 885
0 126.223 881
1.53867 126.223 881
3.06686 125.793 878
4.60029 125.793 878
6.11276 125.364 875
7.61476 124.934 872
9.01196 123.215 860
10.4406 122.355 854
14.7754 121.209 846
16.1953 120.779 843
17.6676 120.779 843
21.4051 109.747 766
22.6539 109.317 763
23.9236 109.031 761
25.1863 108.744 759
26.5119 108.744 759
27.7275 108.314 756
29.0478 108.314 756
30.3682 108.314 756
31.6047 108.028 754
32.7469 107.455 750
34.0568 107.455 750
35.2252 107.025 747
36.5299 107.025 747
37.7332 106.738 745
38.9296 106.452 743
40.2272 106.452 743
41.4131 106.165 741
42.7072 106.165 741
44.0014 106.165 741
45.2956 106.165 741
46.464 105.879 739
47.7546 105.879 739
49.0453 105.879 739
50.336 105.879 739
51.6266 105.879 739
52.7025 105.449 736
53.9879 105.449 736
55.2733 105.449 736
56.5588 105.449 736
57.8442 105.449 736
59.1296 105.449 736
60.415 105.449 736
61.7005 105.449 736
63.2426 105.879 739
64.5333 105.879 739
65.824 105.879 739
67.1146 105.879 739
68.5904 106.165 741
69.8846 106.165 741
71.1787 106.165 741
72.4729 106.165 741
73.9662 106.452 743
75.2638 106.452 743
76.7676 106.738 745
78.0687 106.738 745
79.3699 106.738 745
80.8876 107.025 747
82.1922 107.025 747
83.4968 107.025 747
85.142 107.455 750
86.4519 107.455 750
87.7618 107.455 750
89.3092 107.741 752
90.8636 108.028 754
92.425 108.314 756
93.7453 108.314 756
95.4429 108.744 759
96.7685 108.744 759
98.3526 109.031 761
99.6817 109.031 761
101.276 109.317 763
103.012 109.747 766
104.35 109.747 766
105.688 109.747 766
130.029 128.516 897
131.596 128.516 897
133.608 128.945 900
135.179 128.945 900
136.751 128.945 900
138.938 129.519 904
140.517 129.519 904
142.096 129.519 904
144.151 129.948 907
145.735 129.948 907
147.319 129.948 907
148.903 129.948 907
150.487 129.948 907
151.569 129.519 904
153.147 129.519 904
-65.162 131.968 910
-63.5727 131.968 910
-61.7791 131.533 907
-59.9959 131.098 904
-58.417 131.098 904
-56.5867 130.518 900
-55.0149 130.518 900
-53.443 130.518 900
-51.8712 130.518 900
-50.2993 130.518 900
-48.565 130.083 897
-46.9984 130.083 897
-45.4318 130.083 897
-43.8652 130.083 897
-42.1571 129.648 894
-40.5957 129.648 894
-39.0344 129.648 894
-37.473 129.648 894
-35.9116 129.648 894
-34.3502 129.648 894
-32.6788 129.213 891
-31.1227 129.213 891
-29.5666 129.213 891
-27.9161 128.778 888
-26.3652 128.778 888
-24.8143 128.778 888
-23.2634 128.778 888
-21.7125 128.778 888
-20.1616 128.778 888
-18.5479 128.343 885
-17.0022 128.343 885
-15.4566 128.343 885
-13.9109 128.343 885
-12.3652 128.343 885
-10.8196 128.343 885
-9.27393 128.343 885
-7.72828 128.343 885
-6.18262 128.343 885
-4.63697 128.343 885
-3.07734 127.763 881
-1.53867 127.763 881
0 127.763 881
1.53343 127.328 878
3.06686 127.328 878
4.58457 126.892 875
6.0918 126.457 872
7.58856 126.022 869
9.01196 124.717 860
10.4161 123.557 852
11.8623 123.122 849
13.345 123.122 849
14.7754 122.687 846
16.1953 122.252 843
17.6048 121.817 840
19.0718 121.817 840
21.7178 120.222 829
26.5119 110.07 759
27.7275 109.635 756
29.0478 109.635 756
30.3682 109.635 756
31.6047 109.345 754
32.8343 109.055 752
34.0568 108.765 750
35.2252 108.33 747
36.4321 108.04 745
37.6319 107.75 743
38.9296 107.75 743
40.1189 107.46 741
41.4131 107.46 741
42.7072 107.46 741
44.0014 107.46 741
45.1733 107.17 739
46.464 107.17 739
47.7546 107.17 739
49.0453 107.17 739
50.336 107.17 739
51.6266 107.17 739
52.7025 106.735 736
53.9879 106.735 736
55.2733 106.735 736
56.5588 106.735 736
57.8442 106.735 736
59.1296 106.735 736
60.415 106.735 736
61.7005 106.735 736
63.2426 107.17 739
64.5333 107.17 739
65.824 107.17 739
67.1146 107.17 739
68.4053 107.17 739
69.8846 107.46 741
71.1787 107.46 741
72.4729 107.46 741
73.9662 107.75 743
75.2638 107.75 743
76.7676 108.04 745
78.0687 108.04 745
79.5829 108.33 747
80.8876 108.33 747
82.1922 108.33 747
83.8322 108.765 750
85.142 108.765 750
86.4519 108.765 750
87.9958 109.055 752
89.5467 109.345 754
91.1046 109.635 756
92.425 109.635 756
94.1173 110.07 759
95.4429 110.07 759
97.0235 110.36 761
98.6111 110.65 763
99.9437 110.65 763
101.674 111.085 766
103.012 111.085 766
104.35 111.085 766
128.462 130.083 897
130.029 130.083 897
131.596 130.083 897
133.162 130.083 897
135.179 130.518 900
136.751 130.518 900
138.323 130.518 900
140.517 131.098 904
142.096 131.098 904
143.674 131.098 904
145.253 131.098 904
146.832 131.098 904
148.411 131.098 904
149.99 131.098 904
150.898 130.518 900
152.47 130.518 900
154.042 130.518 900
155.613 130.518 900
-69.6995 133.118 907
-68.1154 133.118 907
-66.3112 132.678 904
-64.7324 132.678 904
-63.3631 133.118 907
-61.5747 132.678 904
-59.7304 132.09 900
-58.1586 132.09 900
-56.3981 131.65 897
-54.8315 131.65 897
-53.2649 131.65 897
-51.6982 131.65 897
-50.1316 131.65 897
-48.565 131.65 897
-46.8412 131.21 894
-45.2799 131.21 894
-43.7185 131.21 894
-42.0156 130.77 891
-40.4595 130.77 891
-38.9034 130.77 891
-37.3472 130.77 891
-35.7911 130.77 891
-34.1197 130.329 888
-32.5688 130.329 888
-31.0179 130.329 888
-29.467 130.329 888
-27.9161 130.329 888
-26.2761 129.889 885
-24.7305 129.889 885
-23.1848 129.889 885
-21.6392 129.889 885
-20.0935 129.889 885
-18.5479 129.889 885
-17.0022 129.889 885
-15.4566 129.889 885
-13.848 129.302 881
-12.3094 129.302 881
-10.7707 129.302 881
-9.23202 129.302 881
-7.69335 129.302 881
-6.15468 129.302 881
-4.61601 129.302 881
-3.06686 128.862 878
-1.53343 128.862 878
0 128.862 878
1.53343 128.862 878
3.06686 128.862 878
4.58457 128.421 875
6.07085 127.541 869
7.56236 127.1 866
9.01196 126.22 860
10.4161 125.046 852
11.8623 124.605 849
13.345 124.605 849
14.7754 124.165 846
16.1953 123.725 843
17.6048 123.284 840
19.0718 123.284 840
20.4655 122.844 837
21.9274 122.844 837
27.7275 110.956 756
29.0478 110.956 756
30.3682 110.956 756
31.6047 110.662 754
32.8343 110.369 752
34.0568 110.075 750
35.2252 109.635 747
36.4321 109.342 745
37.6319 109.048 743
38.8248 108.754 741
40.1189 108.754 741
41.4131 108.754 741
42.7072 108.754 741
43.8826 108.461 739
45.1733 108.461 739
46.464 108.461 739
47.7546 108.461 739
49.0453 108.461 739
50.336 108.461 739
51.6266 108.461 739
52.7025 108.021 736
53.9879 108.021 736
55.2733 108.021 736
56.5588 108.021 736
57.8442 108.021 736
59.1296 108.021 736
60.415 108.021 736
61.7005 108.021 736
63.2426 108.461 739
64.5333 108.461 739
65.824 108.461 739
67.1146 108.461 739
68.4053 108.461 739
69.8846 108.754 741
71.1787 108.754 741
72.4729 108.754 741
73.9662 109.048 743
75.2638 109.048 743
76.7676 109.342 745
78.2783 109.635 747
79.5829 109.635 747
80.8876 109.635 747
82.5223 110.075 750
83.8322 110.075 750
85.142 110.075 750
86.6825 110.369 752
87.9958 110.369 752
89.5467 110.662 754
91.1046 110.956 756
92.425 110.956 756
94.1173 111.396 759
95.6944 111.69 761
97.0235 111.69 761
98.6111 111.983 763
99.9437 111.983 763
101.674 112.424 766
103.012 112.424 766
126.047 130.77 891
128.033 131.21 894
130.029 131.65 897
131.596 131.65 897
133.162 131.65 897
134.729 131.65 897
136.295 131.65 897
138.323 132.09 900
139.895 132.09 900
141.467 132.09 900
143.039 132.09 900
144.61 132.09 900
146.832 132.678 904
148.411 132.678 904
149.99 132.678 904
150.898 132.09 900
152.47 132.09 900
154.042 132.09 900
156.305 132.678 904
157.884 132.678 904
159.463 132.678 904
-69.4689 134.257 904
-67.8901 134.257 904
-66.0178 133.663 900
-64.446 133.663 900
-62.8741 133.663 900
-61.3023 133.663 900
-59.5313 133.217 897
-57.9647 133.217 897
-56.3981 133.217 897
-54.6481 132.772 894
-53.0867 132.772 894
-51.3524 132.326 891
-49.7963 132.326 891
-48.2402 132.326 891
-46.684 132.326 891
-45.1279 132.326 891
-43.4251 131.881 888
-41.8742 131.881 888
-40.3233 131.881 888
-38.7724 131.881 888
-37.2215 131.881 888
-35.6706 131.881 888
-34.1197 131.881 888
-32.5688 131.881 888
-30.9131 131.435 885
-29.3675 131.435 885
-27.8218 131.435 885
-26.2761 131.435 885
-24.7305 131.435 885
-23.1848 131.435 885
-21.6392 131.435 885
-20.0935 131.435 885
-18.5479 131.435 885
-16.9254 130.841 881
-15.3867 130.841 881
-13.848 130.841 881
-12.3094 130.841 881
-10.7707 130.841 881
-9.20058 130.396 878
-7.66715 130.396 878
-6.13372 130.396 878
-4.60029 130.396 878
-3.06686 130.396 878
-1.53343 130.396 878
0 130.396 878
1.52819 129.95 875
3.05638 129.95 875
4.56885 129.505 872
6.07085 129.059 869
7.53616 128.168 863
8.98052 127.277 857
10.4161 126.534 852
11.8623 126.089 849
13.345 126.089 849
14.7754 125.643 846
16.1953 125.198 843
17.6048 124.752 840
19.0718 124.752 840
20.4655 124.307 837
21.9274 124.307 837
27.7275 112.277 756
28.971 111.98 754
30.2879 111.98 754
31.6047 111.98 754
32.7469 111.386 750
34.0568 111.386 750
35.2252 110.94 747
36.4321 110.643 745
37.6319 110.346 743
38.8248 110.049 741
40.1189 110.049 741
41.4131 110.049 741
42.7072 110.049 741
43.8826 109.752 739
45.1733 109.752 739
46.464 109.752 739
47.7546 109.752 739
49.0453 109.752 739
50.336 109.752 739
51.6266 109.752 739
52.7025 109.307 736
53.9879 109.307 736
55.2733 109.307 736
56.5588 109.307 736
57.8442 109.307 736
59.1296 109.307 736
60.415 109.307 736
61.7005 109.307 736
63.2426 109.752 739
64.5333 109.752 739
65.824 109.752 739
67.1146 109.752 739
68.4053 109.752 739
69.8846 110.049 741
71.1787 110.049 741
72.4729 110.049 741
73.9662 110.346 743
75.4664 110.643 745
76.7676 110.643 745
78.2783 110.94 747
79.5829 110.94 747
81.2124 111.386 750
82.5223 111.386 750
83.8322 111.386 750
85.3691 111.683 752
86.6825 111.683 752
88.4639 112.277 756
89.7842 112.277 756
91.1046 112.277 756
92.7917 112.722 759
94.1173 112.722 759
95.6944 113.019 761
97.2785 113.316 763
98.9988 113.762 766
100.337 113.762 766
124.072 131.881 888
125.622 131.881 888
127.603 132.326 891
129.594 132.772 894
131.155 132.772 894
132.717 132.772 894
134.729 133.217 897
136.295 133.217 897
137.862 133.217 897
139.895 133.663 900
141.467 133.663 900
143.039 133.663 900
144.61 133.663 900
146.182 133.663 900
147.754 133.663 900
149.326 133.663 900
150.898 133.663 900
152.47 133.663 900
154.042 133.663 900
155.613 133.663 900
157.185 133.663 900
158.757 133.663 900
161.042 134.257 904
161.901 133.663 900
-69.1615 135.235 900
-67.5897 135.235 900
-66.0178 135.235 900
-64.2312 134.785 897
-62.6645 134.785 897
-61.0979 134.785 897
-59.3322 134.334 894
-57.7708 134.334 894
-56.2095 134.334 894
-54.4647 133.883 891
-52.7304 133.432 888
-51.1795 133.432 888
-49.6286 133.432 888
-48.0777 133.432 888
-46.5269 133.432 888
-44.976 133.432 888
-43.4251 133.432 888
-41.7327 132.982 885
-40.187 132.982 885
-38.6414 132.982 885
-37.0957 132.982 885
-35.5501 132.982 885
-34.0044 132.982 885
-32.4588 132.982 885
-30.9131 132.982 885
-29.3675 132.982 885
-27.8218 132.982 885
-26.2761 132.982 885
-24.7305 132.982 885
-23.1848 132.982 885
-21.6392 132.982 885
-20.0935 132.982 885
-18.464 132.381 881
-16.9254 132.381 881
-15.3343 131.93 878
-13.8009 131.93 878
-12.2674 131.93 878
-10.734 131.93 878
-9.20058 131.93 878
-7.64095 131.479 875
-6.11276 131.479 875
-4.58457 131.479 875
-3.05638 131.479 875
-1.52819 131.479 875
0 131.479 875
1.52819 131.479 875
3.0459 131.028 872
4.55313 130.577 869
6.04989 130.127 866
7.53616 129.676 863
8.98052 128.774 857
10.4161 128.023 852
11.8623 127.572 849
13.345 127.572 849
14.7754 127.121 846
16.1953 126.671 843
17.6048 126.22 840
19.0718 126.22 840
20.4655 125.769 837
21.9274 125.769 837
28.971 113.297 754
30.2879 113.297 754
31.5209 112.997 752
32.7469 112.696 750
34.0568 112.696 750
35.2252 112.245 747
36.4321 111.945 745
37.6319 111.644 743
38.8248 111.344 741
40.1189 111.344 741
41.4131 111.344 741
42.7072 111.344 741
43.8826 111.043 739
45.1733 111.043 739
46.464 111.043 739
47.7546 111.043 739
49.0453 111.043 739
50.336 111.043 739
51.6266 111.043 739
52.7025 110.593 736
53.9879 110.593 736
55.2733 110.593 736
56.5588 110.593 736
57.8442 110.593 736
59.1296 110.593 736
60.415 110.593 736
61.7005 110.593 736
63.2426 111.043 739
64.5333 111.043 739
65.824 111.043 739
67.1146 111.043 739
68.4053 111.043 739
69.8846 111.344 741
71.1787 111.344 741
72.4729 111.344 741
73.9662 111.644 743
75.4664 111.945 745
76.7676 111.945 745
78.2783 112.245 747
79.5829 112.245 747
81.2124 112.696 750
82.5223 112.696 750
84.0557 112.997 752
85.3691 112.997 752
86.913 113.297 754
88.4639 113.598 756
89.7842 113.598 756
91.4661 114.049 759
92.7917 114.049 759
94.3653 114.349 761
95.6944 114.349 761
97.2785 114.65 763
98.9988 115.1 766
120.561 132.982 885
122.107 132.982 885
124.072 133.432 888
125.622 133.432 888
127.173 133.432 888
129.159 133.883 891
130.715 133.883 891
132.271 133.883 891
134.278 134.334 894
135.84 134.334 894
137.401 134.334 894
139.429 134.785 897
140.995 134.785 897
142.562 134.785 897
144.128 134.785 897
145.695 134.785 897
147.262 134.785 897
148.828 134.785 897
150.395 134.785 897
151.962 134.785 897
153.528 134.785 897
155.095 134.785 897
156.661 134.785 897
158.228 134.785 897
159.795 134.785 897
161.901 135.235 900
163.473 135.235 900
165.778 135.837 904
168.468 136.738 910
-70.7334 136.808 900
-69.1615 136.808 900
-67.3644 136.352 897
-65.7978 136.352 897
-64.0163 135.896 894
-62.2454 135.44 891
-60.6892 135.44 891
-59.1331 135.44 891
-57.3831 134.984 888
-55.8322 134.984 888
-54.2813 134.984 888
-52.5523 134.528 885
-51.0066 134.528 885
-49.461 134.528 885
-47.9153 134.528 885
-46.3697 134.528 885
-44.824 134.528 885
-43.2784 134.528 885
-41.7327 134.528 885
-40.187 134.528 885
-38.6414 134.528 885
-37.0957 134.528 885
-35.5501 134.528 885
-34.0044 134.528 885
-32.4588 134.528 885
-30.9131 134.528 885
-29.3675 134.528 885
-27.6961 133.92 881
-26.1574 133.92 881
-24.6187 133.92 881
-23.08 133.92 881
-21.5414 133.92 881
-20.0027 133.92 881
-18.464 133.92 881
-16.8677 133.464 878
-15.3343 133.464 878
-13.8009 133.464 878
-12.2255 133.008 875
-10.6973 133.008 875
-9.16914 133.008 875
-7.64095 133.008 875
-6.11276 133.008 875
-4.58457 133.008 875
-3.05638 133.008 875
-1.52819 133.008 875
0 132.552 872
1.52295 132.552 872
3.0459 132.552 872
4.55313 132.096 869
6.02893 131.184 863
7.53616 131.184 863
8.98052 130.272 857
10.4161 129.512 852
11.9042 129.512 852
13.345 129.056 849
14.7754 128.6 846
16.1953 128.143 843
17.6048 127.687 840
19.0718 127.687 840
20.4655 127.231 837
21.9274 127.231 837
23.3333 126.927 835
24.7025 126.471 832
28.971 114.615 754
30.2879 114.615 754
31.6047 114.615 754
32.8343 114.311 752
34.0568 114.007 750
35.2252 113.551 747
36.5299 113.551 747
37.7332 113.247 745
38.9296 112.943 743
40.1189 112.639 741
41.4131 112.639 741
42.7072 112.639 741
44.0014 112.639 741
45.1733 112.335 739
46.464 112.335 739
47.7546 112.335 739
49.0453 112.335 739
50.336 112.335 739
51.6266 112.335 739
52.7025 111.879 736
53.9879 111.879 736
55.2733 111.879 736
56.5588 111.879 736
57.8442 111.879 736
59.1296 111.879 736
60.6613 112.335 739
61.952 112.335 739
63.2426 112.335 739
64.5333 112.335 739
65.824 112.335 739
67.1146 112.335 739
68.4053 112.335 739
69.8846 112.639 741
71.1787 112.639 741
72.4729 112.639 741
73.9662 112.943 743
75.4664 113.247 745
76.7676 113.247 745
78.2783 113.551 747
79.5829 113.551 747
81.2124 114.007 750
82.5223 114.007 750
84.0557 114.311 752
85.5961 114.615 754
87.1435 114.919 756
88.4639 114.919 756
90.1405 115.375 759
91.4661 115.375 759
92.7917 115.375 759
94.3653 115.679 761
95.9459 115.983 763
119.015 134.528 885
120.561 134.528 885
122.107 134.528 885
123.652 134.528 885
125.198 134.528 885
127.173 134.984 888
128.724 134.984 888
130.275 134.984 888
131.826 134.984 888
133.828 135.44 891
135.384 135.44 891
136.94 135.44 891
138.496 135.44 891
140.052 135.44 891
142.085 135.896 894
143.646 135.896 894
145.208 135.896 894
147.262 136.352 897
148.828 136.352 897
149.892 135.896 894
151.962 136.352 897
153.528 136.352 897
155.095 136.352 897
156.661 136.352 897
158.228 136.352 897
159.795 136.352 897
161.361 136.352 897
162.928 136.352 897
165.045 136.808 900
166.616 136.808 900
-67.1391 137.458 894
-65.3577 136.997 891
-63.5867 136.535 888
-62.0358 136.535 888
-60.4849 136.535 888
-58.934 136.535 888
-57.1893 136.074 885
-55.6436 136.074 885
-54.0979 136.074 885
-52.3148 135.459 881
-50.7761 135.459 881
-49.2374 135.459 881
-47.6988 135.459 881
-46.1601 135.459 881
-44.6214 135.459 881
-43.0827 135.459 881
-41.5441 135.459 881
-40.0054 135.459 881
-38.4667 135.459 881
-36.9281 135.459 881
-35.3894 135.459 881
-33.8507 135.459 881
-32.3121 135.459 881
-30.7734 135.459 881
-29.2347 135.459 881
-27.6961 135.459 881
-26.0683 134.998 878
-24.6187 135.459 881
-23.08 135.459 881
-21.5414 135.459 881
-20.0027 135.459 881
-18.4012 134.998 878
-16.8677 134.998 878
-15.2819 134.537 875
-13.7537 134.537 875
-12.2255 134.537 875
-10.6973 134.537 875
-9.16914 134.537 875
-7.61476 134.075 872
-6.0918 134.075 872
-4.56885 134.075 872
-3.0459 134.075 872
-1.52295 134.075 872
0 134.075 872
1.51771 133.614 869
3.03542 133.614 869
4.53742 133.153 866
6.02893 132.692 863
7.50996 132.23 860
8.98052 131.769 857
10.4161 131 852
11.9042 131 852
13.345 130.539 849
14.7754 130.078 846
16.1953 129.616 843
17.6048 129.155 840
19.0718 129.155 840
20.4655 128.694 837
21.9274 128.694 837
23.3892 128.694 837
24.7025 127.925 832
26.1556 127.925 832
27.6087 127.925 832
30.2879 115.932 754
31.6047 115.932 754
32.8343 115.625 752
34.0568 115.317 750
35.2252 114.856 747
36.5299 114.856 747
37.7332 114.548 745
38.9296 114.241 743
40.1189 113.933 741
41.4131 113.933 741
42.7072 113.933 741
44.0014 113.933 741
45.1733 113.626 739
46.464 113.626 739
47.7546 113.626 739
49.0453 113.626 739
50.336 113.626 739
51.6266 113.626 739
52.7025 113.164 736
53.9879 113.164 736
55.2733 113.164 736
56.5588 113.164 736
57.8442 113.164 736
59.3706 113.626 739
60.6613 113.626 739
61.952 113.626 739
63.2426 113.626 739
64.5333 113.626 739
65.824 113.626 739
67.1146 113.626 739
68.5904 113.933 741
69.8846 113.933 741
71.1787 113.933 741
72.6685 114.241 743
74.1653 114.548 745
75.4664 114.548 745
76.9736 114.856 747
78.2783 114.856 747
79.9025 115.317 750
81.2124 115.317 750
82.7423 115.625 752
84.2793 115.932 754
85.5961 115.932 754
87.1435 116.24 756
88.4639 116.24 756
90.1405 116.701 759
91.4661 116.701 759
92.7917 116.701 759
94.3653 117.008 761
116.939 135.459 881
118.478 135.459 881
120.561 136.074 885
122.107 136.074 885
123.652 136.074 885
125.198 136.074 885
126.744 136.074 885
128.289 136.074 885
130.275 136.535 888
131.381 136.074 885
133.377 136.535 888
134.928 136.535 888
136.479 136.535 888
138.03 136.535 888
139.581 136.535 888
141.608 136.997 891
143.164 136.997 891
144.721 136.997 891
146.769 137.458 894
148.331 137.458 894
149.892 137.458 894
151.453 137.458 894
153.015 137.458 894
155.095 137.919 897
156.661 137.919 897
158.228 137.919 897
159.795 137.919 897
161.361 137.919 897
162.928 137.919 897
164.494 137.919 897
166.616 138.38 900
168.188 138.38 900
170.515 138.996 904
172.665 139.457 907
174.249 139.457 907
-66.6885 138.087 888
-65.1376 138.087 888
-63.3719 137.62 885
-61.8262 137.62 885
-60.2806 137.62 885
-58.7349 137.62 885
-57.1893 137.62 885
-55.3921 136.998 881
-53.8534 136.998 881
-52.1366 136.532 878
-50.6032 136.532 878
-49.0698 136.532 878
-47.5363 136.532 878
-46.0029 136.532 878
-44.4695 136.532 878
-42.936 136.532 878
-41.4026 136.532 878
-39.8692 136.532 878
-38.3358 136.532 878
-36.8023 136.532 878
-35.2689 136.532 878
-33.7355 136.532 878
-32.202 136.532 878
-30.6686 136.532 878
-29.1352 136.532 878
-27.6017 136.532 878
-26.0683 136.532 878
-24.5349 136.532 878
-23.0014 136.532 878
-21.468 136.532 878
-19.9346 136.532 878
-18.4012 136.532 878
-16.8101 136.065 875
-15.2819 136.065 875
-13.7537 136.065 875
-12.2255 136.065 875
-10.6973 136.065 875
-9.16914 136.065 875
-7.61476 135.599 872
-6.0918 135.599 872
-4.56885 135.599 872
-3.0459 135.599 872
-1.52295 135.599 872
0 135.599 872
1.51771 135.132 869
3.03542 135.132 869
4.53742 134.666 866
6.02893 134.199 863
7.50996 133.733 860
8.98052 133.266 857
10.4406 132.8 854
11.8623 132.022 849
13.345 132.022 849
14.7754 131.556 846
16.1953 131.089 843
17.6676 131.089 843
19.0718 130.623 840
20.4655 130.156 837
21.9274 130.156 837
23.3892 130.156 837
24.7916 129.845 835
26.1556 129.379 832
27.5092 128.912 829
28.957 128.912 829
32.8343 116.938 752
34.0568 116.627 750
35.2252 116.161 747
36.5299 116.161 747
37.7332 115.85 745
38.9296 115.539 743
40.2272 115.539 743
41.4131 115.228 741
42.7072 115.228 741
44.0014 115.228 741
45.2956 115.228 741
46.464 114.917 739
47.7546 114.917 739
49.0453 114.917 739
50.336 114.917 739
51.6266 114.917 739
52.9173 114.917 739
53.9879 114.45 736
55.4986 114.917 739
56.7893 114.917 739
58.08 114.917 739
59.3706 114.917 739
60.6613 114.917 739
61.952 114.917 739
63.2426 114.917 739
64.5333 114.917 739
65.824 114.917 739
67.1146 114.917 739
68.5904 115.228 741
69.8846 115.228 741
71.1787 115.228 741
72.6685 115.539 743
74.1653 115.85 745
75.669 116.161 747
76.9736 116.161 747
78.2783 116.161 747
79.9025 116.627 750
81.429 116.938 752
82.7423 116.938 752
84.2793 117.25 754
85.5961 117.25 754
87.1435 117.561 756
88.8149 118.027 759
90.1405 118.027 759
116.939 136.998 881
118.478 136.998 881
120.016 136.998 881
121.555 136.998 881
123.094 136.998 881
124.632 136.998 881
126.744 137.62 885
128.289 137.62 885
129.835 137.62 885
131.381 137.62 885
132.926 137.62 885
134.472 137.62 885
136.018 137.62 885
138.03 138.087 888
139.581 138.087 888
141.131 138.087 888
142.682 138.087 888
144.233 138.087 888
146.277 138.553 891
147.833 138.553 891
149.389 138.553 891
150.945 138.553 891
152.501 138.553 891
154.576 139.02 894
156.137 139.02 894
157.699 139.02 894
159.26 139.02 894
160.822 139.02 894
162.928 139.486 897
